ply
format ascii 1.0
element vertex 1284
property float x
property float y
property float z
property uchar red
property uchar green
property uchar blue
end_header
0.769252 -0.728669 -0.656807 172 180 136
-0.327406 -0.680529 0.322084 76 84 32
-1.9971 -0.528035 1.59991 64 66 30
1.01807 0.490986 -0.523537 94 48 24
1.00456 0.531408 -0.654503 180 142 134
0.316178 0.594501 -0.840486 17 8 4
-0.0610258 1.20328 -0.745473 86 50 46
-0.797377 -2.27554 1.80183 68 77 42
0.919089 -1.47712 -1.49876 67 66 38
-1.48767 -1.15155 0.640293 57 64 38
-0.462329 -0.978776 0.693463 94 101 54
-0.341446 -0.909969 0.442228 90 93 46
-0.120026 -0.106775 -0.294253 46 55 33
-0.818442 -0.0153986 0.0277171 26 12 4
-1.21638 1.1749 0.426873 30 10 4
-0.474256 1.12067 -0.937241 42 18 14
-0.243421 1.59112 -0.709312 86 54 50
-1.67481 0.630512 0.105194 110 68 46
-1.74497 -1.51527 0.639568 166 167 114
-1.31351 0.139609 0.318366 122 104 70
-1.55101 0.992228 0.637372 162 154 127
-0.203868 -0.506763 -0.0838396 142 136 108
0.524851 -0.5009 -0.595976 164 176 130
1.20222 0.342904 -0.656879 160 172 128
0.954673 0.612926 -0.499388 137 99 76
-0.0472789 0.822095 -0.993751 26 14 8
-1.03888 -0.307485 1.22184 166 172 120
-1.15638 -0.962713 0.546978 172 176 122
-0.563482 -0.813595 0.373478 103 104 58
-1.03545 -0.105658 1.03785 48 52 30
1.2466 0.201063 -0.644452 160 118 105
-1.2421 0.180056 -0.445049 69 74 60
-1.34475 0.812211 0.0708001 152 106 72
-0.186532 0.947393 -0.788748 172 140 132
-1.19019 1.58949 1.18207 38 12 2
-1.97235 -1.83174 0.973338 163 162 106
-1.65149 0.73176 0.296817 115 72 54
-0.745164 -0.701644 0.512442 174 180 127
-1.77202 -0.240482 1.07178 162 162 111
-0.017831 1.19073 -0.866581 30 14 8
1.22935 -1.15002 -1.0258 169 176 125
-0.64824 -1.17856 0.356134 74 88 44
-1.46974 0.513106 0.0568993 32 16 4
-0.376144 0.218401 -0.171151 135 132 120
-1.14669 -0.00680396 1.53707 54 38 18
-3.00229 -2.56938 1.09623 46 54 20
-0.792471 -2.33214 1.83029 78 88 56
-2.61954 -2.10155 0.783344 98 94 78
-2.20766 -1.58025 0.639391 42 49 22
0.962627 -1.00787 -0.857643 43 52 34
-1.29125 -1.02632 0.6306 54 60 32
0.886322 -0.955835 -0.912434 48 58 36
-1.17246 -0.985094 0.647026 155 160 111
0.613697 -0.913421 -0.529149 154 162 118
0.830429 -0.888822 -0.837673 48 56 34
0.715134 -0.882957 -0.867835 83 90 68
0.815524 -0.786817 -0.725789 155 166 124
-0.48512 -0.738936 0.378737 110 116 78
-0.652436 -0.521761 0.481783 158 160 113
0.523902 -0.49101 -0.478027 55 61 43
0.405001 -0.39333 -0.468238 54 60 50
-0.712033 -0.332593 -0.128265 49 53 12
1.38513 -0.236544 0.0123126 156 168 124
1.53067 -0.229734 -0.164332 43 29 1
-0.543964 -0.316054 -0.793064 44 50 27
-0.948573 -0.277223 -0.410728 53 57 21
1.48187 -0.164783 -0.391425 96 60 32
1.52519 -0.138258 -0.438995 139 112 85
1.20186 -0.0853294 0.123104 146 162 120
1.43358 -0.0775529 -0.233037 153 156 117
1.19786 -0.0346096 0.147317 34 42 8
1.50132 -0.0604519 -0.494453 152 163 124
1.54411 0.0502398 0.376562 48 52 21
1.01327 0.103766 1.20905 82 54 32
-1.62955 -0.0491097 0.7373 151 148 96
1.26594 0.145247 1.29755 76 42 28
1.26912 0.211303 1.21174 136 122 91
-0.985825 0.229011 1.87798 158 146 106
1.26669 0.113967 -0.713336 124 86 71
1.14692 0.117589 -0.774661 178 142 134
0.889404 0.348753 0.9596 58 38 29
1.02179 0.429679 -0.705036 185 150 150
0.932148 0.452738 -0.703063 112 66 40
1.36114 0.651967 -0.186996 84 103 60
1.01862 0.599126 -0.6462 174 138 133
-1.65805 0.56552 0.280724 92 59 39
0.915991 0.602011 -0.726157 94 49 30
-0.77894 0.665063 -0.78925 14 8 4
-1.64781 0.7995 0.280989 93 48 18
-1.55103 0.796635 0.194428 80 38 12
-0.756869 0.723701 -0.737853 86 53 42
-1.61957 0.864475 0.251119 161 143 114
0.75256 0.971051 -0.681008 163 136 126
-0.882182 1.45739 -0.354014 32 6 2
-0.985697 1.63244 -0.0613604 53 19 11
0.00237012 1.60697 -0.658519 56 24 18
0.222931 1.78997 -0.548776 28 11 9
0.0981301 1.78544 -0.612171 30 13 12
0.843726 2.1347 0.0827442 66 35 30
-0.838909 1.96082 -0.0389833 122 102 96
-0.852186 2.02967 0.112446 52 16 8
0.435429 2.17762 -0.299786 106 68 66
0.742203 2.38936 0.0137026 38 6 0
0.604009 2.3696 -0.0725981 120 91 89
-0.71873 2.29525 0.122034 118 90 85
-0.737116 2.36031 0.254718 62 14 7
0.584273 2.45036 -0.00601836 51 22 18
-0.562801 2.45499 0.0751384 112 53 36
-0.779211 2.77051 0.935985 132 94 78
-0.327969 2.47875 -0.0102398 119 58 40
-0.680092 2.78419 0.687857 55 14 8
-0.526598 2.67947 0.329672 67 20 14
0.170946 2.63097 -0.104621 125 99 98
-0.666778 2.88998 0.800642 134 97 84
-0.618371 2.8689 0.633724 44 13 8
-0.164682 2.95222 0.212546 88 44 32
1.14524 -2.45574 0.240122 154 160 104
1.09463 -2.36646 0.139517 66 80 37
1.12161 -2.25049 0.183459 158 166 114
-0.758686 -2.02423 1.43441 96 102 68
-0.479391 -1.84037 1.31048 152 158 106
-2.07798 -1.59639 0.609859 71 72 48
-0.437783 -1.62313 1.00008 157 160 108
-2.03809 -1.53795 0.57158 41 46 26
-0.407496 -1.2567 0.742923 67 84 38
-1.31723 -0.858289 0.480614 81 84 61
0.553687 -0.78154 -0.657945 58 62 34
0.659565 -0.6375 -0.722395 156 168 118
-1.95358 -0.440194 1.51327 143 140 85
0.389095 -0.396003 -0.486353 54 60 50
-0.609771 -0.380161 0.304577 50 54 15
0.241618 -0.379062 -0.513376 32 36 22
-1.15675 -0.272713 1.13659 154 158 107
-1.01625 -0.301911 0.281711 56 58 28
1.30906 -0.171936 0.0806935 148 162 118
-1.58115 -0.15812 1.29199 80 56 37
1.28494 -0.107232 0.0920766 36 44 10
1.21867 -0.0994283 0.13111 145 162 119
1.17809 -0.0358654 0.0947367 31 38 8
-1.31425 -0.0350373 1.54521 58 30 17
1.03194 0.110152 0.840139 114 87 66
0.923665 0.112338 0.753993 128 117 93
0.157721 0.00266033 -0.111666 46 16 11
-0.983732 0.230984 1.87533 159 147 108
0.801715 0.177056 0.309595 34 12 6
1.0957 0.132989 -0.716641 150 107 84
-1.07861 0.325798 1.72734 58 30 15
0.98729 0.241097 -0.636457 138 128 92
1.02772 0.26249 -0.699383 137 88 58
0.978495 0.519877 -0.677474 170 134 122
-1.64916 0.487126 0.299961 88 60 42
-1.52065 0.579147 0.68415 132 98 62
0.846912 0.592591 -0.541056 42 16 6
0.930495 0.605604 -0.694166 94 49 30
0.217429 0.627957 -0.781067 52 49 30
-1.63751 0.661991 0.25884 118 72 40
0.266286 0.632933 -0.811858 22 10 8
0.561377 0.730639 -0.719471 72 44 32
-1.58241 0.773631 0.431448 145 99 72
-0.683689 0.732973 -0.700331 13 8 6
0.72384 0.862849 -0.859926 160 130 120
-1.57633 0.928709 0.336702 154 144 118
-1.53816 0.992307 0.331764 116 90 68
-0.914479 1.42914 -0.457406 30 6 2
-0.970944 1.54441 -0.217999 88 44 29
-0.821346 1.6302 -0.420442 34 8 1
-0.878197 1.72434 -0.310615 92 42 28
-0.832814 1.97203 -0.0163455 122 104 98
0.557572 2.10517 -0.217641 53 26 24
-0.769252 2.01836 -0.00681915 58 20 12
-0.702039 2.43292 0.46421 63 16 8
-0.648851 2.36569 0.155092 80 22 12
-0.717317 2.86456 0.909145 138 99 82
0.767094 2.87234 0.269744 145 129 128
0.257669 2.67714 -0.0515969 66 30 30
-0.524429 2.70254 0.301952 58 16 10
0.115778 2.68388 -0.11556 66 26 24
0.268191 2.94531 0.163496 76 38 32
-0.219921 2.95637 0.264056 149 98 82
0.717903 -0.881895 -0.861693 83 90 68
0.758503 -0.831846 -0.843927 49 60 40
0.538548 -0.667591 -0.698832 84 90 72
0.438251 -0.539671 -0.591477 92 96 84
0.312314 -0.399475 -0.501501 82 88 74
0.158059 0.192236 0.274322 52 58 50
-0.961569 1.60509 -0.162066 108 78 70
0.0525009 1.76409 -0.599966 92 58 52
0.63287 1.98778 -0.307391 86 56 52
0.793217 2.19807 0.114136 90 62 59
1.17227 -2.61971 1.3163 160 162 110
0.902308 -2.39062 1.15232 158 161 114
0.969135 -2.16431 0.147142 60 73 32
1.799 -1.69698 1.14841 67 70 36
-2.02377 -1.55031 0.634894 41 46 25
-0.636225 -1.42426 0.849237 80 90 49
0.410624 -0.468657 -0.557037 44 49 35
-0.537155 -0.387023 0.159155 120 112 70
1.48876 -0.233613 -0.21895 44 34 8
0.12545 -0.268452 -0.37228 32 38 19
1.40231 -0.171655 0.082456 36 38 8
0.284619 -0.128722 -0.232746 154 166 122
-0.359763 -0.115429 -0.320392 42 53 40
1.21948 0.10154 0.754623 144 158 114
1.23763 0.0681805 -0.04584 48 48 22
0.593736 0.116244 0.0306177 44 22 14
-1.66391 0.0839207 0.500188 145 146 88
1.20955 0.185782 -0.732591 117 79 60
-1.43488 0.312764 0.733515 44 50 30
-1.59675 0.336459 0.839068 48 52 34
1.02112 0.419099 -0.713985 182 147 145
-0.105677 0.624749 0.0560746 24 25 12
-1.76967 0.555127 0.277626 156 144 118
0.767134 0.659245 -0.691657 152 103 78
0.881831 0.708799 -0.657403 83 38 12
0.845725 0.833485 -0.809824 65 29 13
0.0836548 1.38514 -0.807391 32 12 8
0.089128 1.55281 -0.744646 64 32 30
-0.903707 1.65259 -0.205226 16 6 5
0.0830865 1.66915 -0.667325 84 49 46
0.354683 1.80174 -0.435799 30 6 4
-0.887948 1.7132 -0.333123 90 40 26
0.200939 1.78719 -0.580515 26 10 8
0.11831 1.77899 -0.626427 26 8 7
-0.801453 1.81325 -0.26208 40 9 4
-0.830573 1.96635 -0.0103924 124 102 96
-0.651651 2.16407 -0.0192857 108 47 32
0.581213 2.34559 -0.0873298 106 71 70
0.584472 2.61498 0.1081 105 68 66
0.386094 2.56219 -0.0952134 107 68 68
-0.596758 2.82885 0.357948 48 16 10
0.0156699 2.02739 -0.484738 60 23 20
-1.72414 0.374786 0.362665 48 46 30
-1.66055 0.781986 0.251883 95 50 22
0.521 2.08816 -0.263523 54 28 26
1.06378 -2.45637 1.3172 32 50 19
1.18703 -0.111556 0.083144 145 162 118
-0.0154494 0.215695 0.131642 36 50 34
0.674648 2.1489 -0.206099 91 52 40
1.51621 -0.424995 -0.0820602 151 164 118
-0.7174 -2.349 1.88086 61 74 39
-0.677488 -2.21262 1.69192 60 75 39
-1.252 -0.44711 0.268044 154 154 108
-1.061 -0.158669 1.17669 38 41 15
1.25994 -0.102653 0.0526097 36 44 10
1.11922 0.0371603 1.31739 150 162 118
-0.926121 -0.0626569 1.14377 36 39 15
0.35964 0.0350062 0.106443 36 12 6
0.973365 -2.51211 0.767902 160 162 108
-0.801921 -2.6778 2.45823 68 74 40
0.922956 -2.39482 1.20068 158 160 112
0.908147 -2.27066 1.28031 159 162 110
-0.592473 -2.17857 1.6436 156 157 106
-1.92273 -1.63908 0.593191 148 146 90
-1.95468 -1.33132 0.530131 43 46 25
-1.83409 -1.31167 0.721446 42 48 24
-2.09384 -0.446053 1.56833 146 142 83
1.56388 -0.24371 -0.0215503 44 38 7
0.142545 -0.215583 -0.383299 50 57 40
1.50788 -0.0457633 -0.0381875 148 161 117
-1.09375 -0.124513 -0.0104197 96 102 64
-1.08809 0.00103425 0.90496 30 32 16
1.34757 0.630384 -0.2645 88 108 65
0.949668 0.520286 -0.720148 168 128 118
-1.65641 0.527033 0.324099 91 60 44
0.795065 0.668444 -0.638976 150 103 78
0.392024 0.69227 -0.865275 20 9 4
-0.784974 0.910847 -0.509675 45 10 1
-0.0868331 1.12506 -0.897776 77 34 26
0.10309 1.55248 -0.747735 66 35 31
0.293294 1.64335 -0.629165 84 51 48
-0.0460731 1.59594 -0.701609 51 21 16
-0.804299 1.66046 -0.322274 33 8 2
0.495392 2.079 -0.277596 58 29 28
0.00163592 1.99366 -0.486681 64 24 22
-0.612037 2.21674 0.08464 105 46 30
-0.148744 2.89275 0.740715 56 14 8
0.299862 2.70099 -0.0365329 60 22 22
1.75862 -1.69773 -1.36486 69 66 34
0.586254 2.62186 0.118116 105 68 66
-0.667407 -2.21954 1.75989 61 75 38
1.72203 -0.547071 -0.139518 78 68 28
-0.674906 -0.377509 0.180414 42 49 15
-1.48725 -0.319387 1.158 42 41 20
-1.16118 -0.278938 0.91692 155 158 104
-1.01493 -0.306023 0.177302 52 56 26
1.40869 0.000439152 -0.5085 132 90 66
-0.129593 -0.0031382 -0.191847 33 44 28
0.502556 0.0631337 0.205773 33 10 2
-0.356907 0.395722 -0.0154979 46 52 36
1.00595 0.40607 -0.744961 184 146 146
0.000990913 1.11489 0.886171 19 8 8
-0.105572 1.13899 -0.900699 72 32 24
-0.442544 1.32851 -0.800253 52 18 16
-0.221862 1.81364 -0.562074 98 60 54
-0.739736 2.02738 -0.054417 59 18 12
1.223 2.7037 0.710822 70 36 26
0.0287557 2.87908 0.117083 66 24 18
0.81652 -2.02805 0.0236214 63 79 42
-0.53578 -2.0002 1.42434 152 156 104
-1.54511 -0.741779 0.337694 152 149 94
-1.57496 -0.508909 1.47104 149 149 93
1.4498 -0.311429 0.0368633 149 165 120
0.275275 -0.323977 -0.440048 52 56 40
-2.4199 -1.95102 0.844083 46 50 30
-1.56957 -1.2007 0.675319 44 48 25
-1.49285 -1.17887 0.688398 41 51 26
-0.557921 -1.0323 -0.0020733 72 84 41
-1.13649 -0.959637 0.634079 154 158 106
0.659379 -0.881813 -0.690504 46 52 24
-0.725236 -0.571534 0.352589 157 162 110
0.383231 -0.477482 -0.532098 36 42 28
-0.679915 -0.382407 0.235204 39 48 13
0.289127 -0.142864 -0.341611 150 164 118
-0.141157 0.0850232 -0.0194389 40 54 36
-2.22474 0.0796247 -0.931343 138 132 74
-0.859532 0.758374 -0.681347 25 8 2
-0.811802 1.51796 -0.389407 78 34 22
-0.62612 1.53074 -0.639414 60 21 16
1.24663 2.73698 0.789833 68 34 24
0.159516 2.84493 0.0173881 66 28 27
1.00484 -2.46026 1.28103 40 52 16
-0.418908 0.0919674 -0.0259243 100 97 82
-2.04731 -1.63894 0.764007 43 47 27
-1.28883 -0.955528 0.626877 46 52 26
0.616593 2.93237 0.405655 92 62 58
-0.655936 -2.28107 2.85147 107 113 68
-0.633832 -2.06589 1.52662 60 74 42
-2.14719 -1.58573 0.567082 46 50 26
-0.301039 -1.20104 0.795671 160 162 111
-0.570957 -1.01029 0.664186 69 82 38
-0.556974 -0.664095 -0.398704 76 80 34
-1.43415 -0.527997 0.505508 153 152 98
-1.93092 -0.480618 1.13526 47 47 18
0.259817 -0.334486 -0.440518 50 54 39
-1.74381 -0.267092 1.09086 145 142 84
0.279716 -0.14803 -0.432475 148 163 118
1.30531 0.00431719 0.172877 40 43 15
-1.60594 0.00810163 0.0116964 149 150 94
-0.403542 0.23868 0.0121723 100 96 76
-2.38051 0.0326284 -0.994053 138 134 70
-2.18749 0.197767 -0.14213 138 131 69
1.10742 0.37937 -0.700844 150 136 114
-0.13159 0.67466 0.0228331 22 22 10
-0.360463 0.924033 -0.920398 172 135 124
-0.394184 0.905707 -1.58028 42 14 8
0.0337885 1.5781 -0.710509 122 100 96
-0.187939 1.80517 -0.552998 90 52 46
-0.856916 1.90132 -0.0890791 84 37 22
-0.0598741 2.05512 -0.463301 71 26 22
-0.908733 2.15535 -0.556032 70 22 16
-2.69347 -2.19105 0.754888 40 49 25
0.974612 -2.20475 0.158838 60 72 34
-0.30794 1.98327 -0.391524 58 20 16
0.273618 2.60126 -0.229081 76 37 36
-0.550877 2.84737 0.501713 50 16 12
0.445096 2.95208 0.178886 148 127 128
-0.554568 -1.6453 1.05147 55 72 30
-0.717041 -0.253719 1.23892 53 58 25
-1.65539 0.0256185 -0.323279 148 149 92
0.498087 -0.715418 -0.63058 36 42 20
-1.50074 -0.258464 1.00549 40 34 15
0.350625 -0.169232 -0.400828 146 162 116
-1.51126 0.0323779 0.439544 151 152 98
-0.460255 1.1937 -0.836676 54 24 20
-0.556472 2.00701 -0.285839 68 20 12
0.88252 -0.789788 -0.753489 156 166 117
-1.97394 -0.534086 1.78925 58 60 28
-1.47815 -0.253085 0.98676 46 42 22
-1.75333 0.238357 0.354162 70 64 37
-0.864748 0.757968 -0.540001 12 8 2
0.593498 -1.27528 0.723418 96 108 68
-1.44149 0.316327 0.822154 50 58 32
-1.50164 0.418675 0.736184 37 40 20
-1.31276 -1.12665 1.07302 102 106 66
-1.00743 1.17994 -0.164827 58 32 18
-0.786917 -0.567032 -0.109857 138 134 93
-0.543987 1.02023 0.509235 14 8 3
1.26996 -2.43339 0.189134 160 165 116
-0.869394 -2.04128 1.44733 62 68 34
-0.759409 -2.02324 1.42 100 104 74
1.31131 -0.162756 0.0956344 154 168 124
1.24521 -0.11555 0.126554 150 162 120
0.888463 -0.00848059 0.812428 153 166 120
-1.60023 -0.0977455 0.871326 98 86 52
1.31746 1.18465 0.0244863 154 151 139
1.19842 -2.41811 0.201124 68 83 44
-0.00931018 0.355265 0.187846 42 56 36
-0.00428635 1.60465 -0.657939 53 23 19
0.018503 1.80971 -0.573956 50 17 9
0.210212 2.35652 -0.256983 68 25 22
0.169384 2.62223 -0.110282 128 104 102
-0.706088 2.81312 0.611579 136 101 90
0.835803 0.530792 -0.635691 110 80 68
-0.492009 -1.78557 1.13018 160 163 111
0.784932 0.0219429 0.147365 111 100 72
0.699482 0.158115 0.159585 35 14 9
0.647016 -0.581488 -0.559054 158 168 120
1.64102 -0.478851 -0.24978 82 80 37
1.02989 0.168165 0.210295 35 33 12
-1.52596 -0.208528 0.968682 49 38 18
-1.52885 -0.215315 0.955531 50 38 20
0.458531 1.71628 -0.303039 76 42 36
0.507908 -0.135784 -0.0692183 152 166 118
-0.353972 0.624033 0.936313 26 32 19
0.317462 1.48443 -0.675647 72 42 37
-0.836779 -1.45781 0.894595 154 158 109
0.963075 -1.16703 -0.674744 64 68 30
-0.448987 -0.55775 0.287696 116 116 76
-1.02343 -0.176533 1.04836 155 160 110
1.20705 0.163924 -0.753566 112 73 53
1.04592 0.271571 -0.793318 172 140 130
0.878749 0.598206 -0.496186 40 16 2
0.957206 1.16502 -0.402352 48 22 13
0.590782 1.74517 -0.42352 92 65 61
0.600677 2.0577 -0.256561 122 103 101
-0.724497 2.79018 0.889456 70 26 16
0.350821 2.68783 -0.00623181 56 18 16
1.30148 -2.59573 0.277122 156 160 108
-1.2423 -1.06891 0.710596 156 160 107
-0.954459 -0.754211 0.638951 54 64 32
0.267159 0.663608 -1.04407 24 12 6
0.42669 0.750588 -0.89309 25 12 6
0.0967453 1.98256 -0.467086 115 98 100
0.48832 2.23137 -0.193798 106 68 66
0.602979 2.36488 -0.0621475 114 86 82
-0.780337 2.78816 0.980551 129 98 80
-0.308632 2.56376 -0.0520745 57 20 14
0.753408 0.737513 -0.678001 86 48 12
-0.773856 -2.45511 2.017 66 72 39
0.940359 -2.2784 0.845153 160 166 112
-1.10752 -0.862379 0.613526 50 60 30
1.33365 -0.178327 0.133789 152 170 122
0.899874 0.582899 -0.608906 164 116 94
-0.178793 0.770745 -0.882443 8 5 2
0.306836 1.66001 -0.597477 82 50 46
0.373698 1.83783 -0.535407 84 54 51
-0.756538 2.02881 -0.0131988 56 18 12
-0.573279 2.47411 0.124846 110 50 33
0.822101 -2.27357 1.1702 160 164 111
0.940815 -2.19754 1.2994 50 58 21
-0.666948 -1.09433 0.630359 64 78 34
0.591301 -0.698755 -0.733382 39 46 28
1.36929 0.0386484 -0.3901 145 105 76
-0.344547 0.0517018 -0.140958 110 112 106
0.658676 0.867523 -0.887501 162 136 124
0.456524 0.754689 -0.816008 30 13 7
0.699166 2.85656 0.290237 89 62 58
-1.05908 -0.152074 1.21082 38 42 16
-0.768768 -1.54888 1.09621 50 66 24
-0.427612 -1.33483 0.780775 72 86 42
-0.674823 -1.09935 0.574698 64 78 35
-0.608082 0.154387 -0.104 36 12 6
0.866903 1.05447 -0.635329 71 48 38
0.016455 1.27569 -0.880155 80 46 42
0.477459 2.24812 -0.232105 104 68 66
-0.690281 -1.67133 1.26108 53 70 28
-0.51992 1.64379 -0.551738 61 25 18
-0.309827 2.40895 -0.19049 105 53 38
0.958541 0.429196 -0.365317 36 13 4
0.639058 0.726912 -0.673051 34 12 4
-0.514423 2.02475 -0.189289 60 16 10
-1.87683 -1.54165 0.747265 55 62 36
-1.15981 -0.467814 0.141354 48 56 26
1.41773 0.236126 0.219872 148 156 118
0.251963 0.650055 0.0655541 37 40 22
-0.64813 1.76837 -0.334978 87 39 25
0.653946 2.36011 0.162401 102 66 63
-1.26481 0.410992 0.837624 40 40 24
1.64305 -0.511906 -0.143615 64 64 20
0.884153 -2.36731 0.878821 41 54 18
0.92867 -2.1993 0.924089 158 163 108
0.781371 -2.02639 1.01741 53 60 20
0.567748 -1.91094 0.670208 154 160 112
0.60594 -1.64916 0.326176 70 85 32
0.461063 -1.42147 0.251093 152 160 110
-0.394935 -1.34336 0.822158 79 90 44
0.860832 -1.22297 -0.980005 150 157 107
0.505716 -1.29986 0.529312 46 62 26
-0.335728 -1.18174 -0.303561 82 94 40
0.506691 -1.14234 0.415924 156 162 113
0.526338 -1.1419 0.601301 42 52 26
0.401795 -0.699005 -0.0931113 82 86 75
-0.332363 -0.695432 0.0921329 162 166 117
0.270498 -0.651324 -0.43334 152 158 114
0.619903 -0.501422 -0.404967 156 167 118
-0.139591 -0.474744 -0.0145424 158 163 119
1.61455 -0.151216 0.46404 40 45 12
1.42922 -0.136581 -0.21675 60 48 14
1.56262 0.121293 0.535201 48 48 24
1.08041 0.0714389 -0.733118 151 159 116
0.0818681 0.477853 0.298891 8 4 0
1.3292 0.584632 0.205845 30 10 3
0.978232 0.886439 -0.565303 75 41 23
-0.532039 0.775821 -0.967211 92 62 52
-1.36296 1.22081 1.0562 152 139 112
1.08983 2.25838 0.245187 78 47 32
1.14158 2.51248 0.494148 62 24 18
1.03969 2.78936 0.481257 141 130 125
0.577698 2.90688 0.278512 85 56 53
2.49254 -3.0119 2.47713 69 82 42
0.961657 -2.53174 0.873171 160 162 108
0.89727 -2.39897 1.1518 161 164 111
0.65523 -2.09143 0.666883 50 56 22
0.594897 -2.04338 0.658565 156 158 110
0.78479 -2.02273 1.01099 50 58 20
0.707316 -1.96672 0.984032 155 162 110
0.567129 -1.64297 0.099696 159 164 110
0.570883 -1.64147 0.271416 70 84 32
0.478358 -1.41932 0.278666 154 162 111
-0.404115 -1.34352 0.814939 76 88 42
-0.316863 -1.23364 -0.32368 86 99 48
0.522698 -1.16121 0.626913 34 44 21
0.566893 -1.15775 0.528487 155 162 112
0.276082 -1.07486 0.318663 32 44 16
0.191106 -0.979792 0.239348 32 41 14
-0.0743862 -0.900139 -0.154359 116 118 76
0.425893 -0.904644 0.826849 30 40 14
-0.335069 -0.888483 0.295168 162 170 116
0.488307 -0.764471 -0.493522 54 58 26
0.0697682 -0.725898 -0.986406 158 168 117
0.352061 -0.713339 -0.191179 82 88 79
-0.23436 -0.704132 0.518812 66 76 26
0.165408 -0.66292 -0.668374 158 164 118
0.541977 -0.562063 -0.521471 50 57 40
-0.150533 -0.313598 0.262609 120 114 86
-0.522637 -0.311239 -0.589941 108 101 67
0.889418 -0.0398964 -0.22056 146 160 114
1.25561 0.110601 0.874628 148 159 114
1.18622 0.0439814 -0.155904 48 51 26
1.08016 0.0659777 -0.721395 148 162 116
1.22582 0.13045 -0.640989 176 136 126
1.57568 0.196503 -0.206387 134 94 74
-0.104036 0.353759 0.00370361 57 62 44
0.0744326 0.478856 0.267065 9 4 1
1.23427 0.552405 0.0477339 32 12 4
-0.939317 0.58959 -0.916145 18 14 8
-1.5135 0.834858 0.0287756 138 95 62
-1.40334 0.866434 -0.272629 148 101 69
-1.31128 1.35844 0.900119 78 42 20
-1.28353 1.57276 0.74123 64 28 14
0.876182 1.9069 0.00771649 36 12 6
0.235304 1.33513 -1.96215 143 137 122
0.242756 1.3368 -2.04036 68 66 41
0.409464 1.38781 -2.05661 161 153 142
-0.19537 1.82775 -0.534872 95 58 51
-0.848616 2.03121 0.127397 58 18 10
1.15585 2.41764 0.383437 143 135 126
-0.716695 2.30151 0.127941 112 82 78
1.0468 2.7994 0.488324 141 130 125
0.603123 2.92298 0.331449 82 54 50
0.911615 -2.29392 -0.195408 68 82 38
0.912066 -2.27056 1.05345 36 48 18
0.840098 -2.17078 0.740277 160 163 108
0.761285 -2.01904 0.962108 50 58 20
0.930879 -2.0607 1.44513 155 162 110
-0.374663 -1.21184 -0.45534 84 98 46
0.0772182 -1.03166 0.033688 112 117 76
0.601731 -0.794402 -0.939454 43 52 34
0.0915814 -0.729647 -0.956932 158 169 118
0.336685 -0.530312 -0.629636 25 32 16
1.22276 0.548183 0.0354828 30 11 2
-0.77805 0.760039 -0.609267 14 9 7
-1.39076 0.994865 0.185581 76 32 18
0.242553 1.41999 -1.99124 158 150 140
-0.853826 2.03965 0.151937 57 18 8
0.736566 2.27839 -0.0519089 99 58 43
0.167415 -0.476612 0.733204 156 161 116
1.14569 -2.7047 1.1891 158 162 110
0.273157 -0.564885 0.801231 59 62 34
1.52817 0.299235 1.29279 32 34 15
0.200271 1.24734 -1.84746 146 142 130
0.807513 -2.40667 0.820003 36 48 14
0.688979 -2.34195 0.817471 161 163 108
0.852411 -2.27526 0.728235 160 165 112
0.73617 -2.12189 0.714776 44 54 22
0.611798 -1.92756 0.781364 154 161 110
0.623182 -1.85138 0.876532 154 160 109
1.52683 -1.83899 2.14449 161 166 112
0.189178 -1.42878 0.379112 156 162 109
0.483794 -1.41253 0.276192 154 163 111
-0.179846 -1.24678 -0.220894 157 164 112
0.720438 -1.19597 0.837396 156 163 114
0.520174 -0.879414 -0.353312 156 164 113
0.237349 -0.856275 -0.756009 155 164 116
0.844777 -0.831168 -0.7533 130 140 101
0.46531 -0.764284 -0.583792 57 60 30
0.234835 -0.649194 0.765793 158 162 120
-1.99004 -0.543568 1.56514 62 64 30
-0.214589 -0.386203 -0.832542 77 82 72
-0.511493 -0.320835 -0.553183 109 103 68
1.29506 0.0286733 1.25657 148 164 118
-0.48614 -0.0917819 -0.217856 32 42 20
1.05496 0.0433228 -0.727672 148 164 117
-0.432658 0.0760949 -0.0303502 106 104 88
-0.196118 0.731993 -0.299155 14 13 7
-1.30811 0.758317 -0.322175 52 16 7
0.361342 1.37753 -2.14881 164 156 146
0.384758 1.42014 -2.13208 164 154 142
-0.184079 2.06344 -0.405557 96 52 45
1.03221 2.77501 0.417095 144 134 130
0.584283 2.89054 0.318382 90 59 56
0.278449 -0.957234 -1.48899 66 70 32
1.3752 0.483246 0.306265 114 88 61
1.85508 0.799947 0.995813 128 81 56
0.245812 1.60369 -0.543842 62 32 25
0.615268 -2.16108 0.645627 158 161 106
0.0589807 -1.29593 0.104705 96 100 46
-0.14449 -0.334226 0.0923288 47 51 29
1.37026 -0.0851825 0.262844 40 50 15
-0.960814 -0.06419 0.999904 42 44 18
0.581321 -1.52699 1.42464 159 165 111
0.481791 -1.19086 0.626697 28 40 17
0.810703 -0.82129 -0.800508 147 157 110
0.489574 -0.755576 -0.548012 54 58 28
0.472359 -0.477233 -0.652412 159 169 118
0.0402128 -0.385958 -0.691551 40 44 24
1.01142 0.242642 0.830972 40 17 8
1.12015 0.392864 0.286958 26 8 4
0.374938 1.07901 -1.80558 154 150 137
0.149567 1.56557 -0.686518 62 32 28
1.07392 2.34853 0.18178 142 138 130
0.380286 1.60439 -2.11983 90 56 30
-0.759722 -0.596587 0.283721 158 166 112
1.14669 -2.1856 1.27375 155 162 108
1.87113 0.0155004 1.18385 33 40 10
1.23006 -0.00236625 0.851844 55 33 15
1.06247 -0.942797 -0.685879 149 163 113
0.51196 -0.740408 -0.499966 52 56 26
0.154554 -0.73913 -0.795944 158 167 116
0.0317154 -0.497104 0.431712 149 154 110
1.12899 0.421938 0.319235 26 8 4
0.359358 0.778838 -1.32254 158 136 128
0.303044 1.33371 -0.725803 82 52 46
0.314668 1.35509 -1.99284 72 61 26
0.029282 2.20935 -0.228624 78 30 26
-0.691184 2.28854 0.1947 96 52 42
1.00303 0.226471 0.21667 31 30 13
0.41712 1.43148 -2.101 165 155 147
0.852161 -1.90703 1.00281 60 74 29
0.485343 -1.42179 1.60248 123 132 80
-0.357903 -1.04236 -0.302902 97 106 49
0.551762 -0.983231 -0.44896 156 165 114
0.668452 -0.883115 -0.664295 46 52 22
0.315399 -0.774181 -0.489615 160 169 121
0.49396 -0.710663 -0.656759 28 36 14
0.870252 -0.410472 0.936557 42 47 24
1.33309 -0.0366556 0.671139 150 166 116
-0.421351 0.0758239 -0.124036 109 108 94
1.50144 0.276265 0.387525 149 162 118
-1.09551 2.10975 1.59105 100 100 67
-0.507216 1.63539 -0.482799 61 24 14
-1.24568 2.36248 1.22515 62 70 42
0.619104 0.57809 -0.955594 154 105 80
0.514257 1.45715 -1.98073 164 156 145
0.786791 2.62731 0.236645 93 54 44
1.02706 -1.18464 0.137334 158 166 116
0.477658 -0.438465 0.0149734 38 44 23
0.765438 -1.87101 0.756769 74 89 40
0.396136 -0.939178 -0.59212 156 164 113
0.334453 -0.453891 -0.33297 37 42 26
-0.459054 -0.381677 0.237484 116 110 68
0.159944 -0.178494 0.429833 62 68 50
-0.362227 0.980832 -0.957413 158 120 108
0.315868 -1.00157 0.308673 36 44 20
-2.36846 0.492186 0.69169 47 59 36
-1.36128 0.447882 -0.282195 14 6 4
1.2999 -3.19416 1.41627 68 73 20
2.0105 -2.41973 -2.03511 66 74 43
2.00907 -2.3737 -2.02879 66 74 44
2.01442 -2.39033 -1.94804 57 63 28
1.89019 -1.80811 -1.65946 47 55 25
1.11129 -1.13443 -1.07296 154 164 120
1.0254 -1.10252 -1.07353 56 66 41
1.57927 -0.495397 -0.13464 150 163 116
-1.84394 0.153477 0.346941 148 134 82
-0.447188 0.232301 0.211343 28 14 2
-1.6758 0.393708 0.512432 48 44 26
-1.83737 0.400722 0.554735 40 40 24
7.43534 1.90954 4.74119 90 102 52
-2.99788 0.457311 -1.3143 44 48 29
0.241414 0.682176 -1.07353 19 10 4
0.222047 0.694744 -1.22916 80 69 52
-2.98943 0.578396 -1.27496 165 156 140
-0.312638 0.913402 -0.773559 43 12 5
-1.03085 1.14212 -0.298986 47 10 2
-0.592047 1.17728 -0.818742 36 5 2
-2.20656 1.38252 -2.38743 62 64 33
-2.23825 1.40063 -2.41875 62 63 37
2.00761 -2.37195 -1.9729 56 66 32
1.90824 -1.87167 -1.72812 42 55 23
1.71124 -1.74503 -1.59558 158 163 110
-1.63257 0.17761 0.528933 147 142 80
-1.84906 0.181288 0.546287 146 135 78
0.116147 0.329664 0.347613 51 60 48
-0.817444 0.440555 -0.59666 10 6 1
7.89613 2.12269 5.8652 92 104 54
-2.9813 0.579452 -1.2923 168 157 142
-0.895975 0.865241 -0.552573 44 14 6
-0.90019 0.998216 -0.645287 167 114 84
-0.980444 1.03181 -0.609929 86 32 16
-3.21349 0.793549 -1.41885 167 156 140
-3.33328 0.950564 -1.43239 169 158 144
0.596009 2.69182 0.0508595 121 102 100
-1.53555 0.262591 0.239164 54 55 38
1.70744 -1.74928 -1.59878 158 163 110
-1.8279 0.293568 0.535061 40 43 23
-1.48714 0.37004 0.44915 40 40 24
-1.77446 1.12176 -2.12266 154 140 125
0.271989 3.01708 0.0922866 144 126 127
-0.91489 -2.14958 1.57784 149 148 94
-0.719255 -2.59715 2.22849 156 156 102
1.95586 -2.02461 -1.82864 46 54 26
1.7057 -1.75649 -1.60375 156 162 108
-1.87504 -0.415447 1.51255 144 142 88
-1.84302 0.147225 0.531367 148 134 81
0.705895 0.357096 0.443397 46 38 20
-1.86791 0.335886 0.351159 31 38 22
-0.748941 0.446443 -0.915218 49 56 40
-1.29509 0.356627 -1.59565 108 116 86
-0.599484 1.17645 -0.687992 60 24 18
-2.04959 1.19782 -2.29812 62 68 40
0.373464 2.77254 0.101452 74 36 33
-0.0876329 0.869345 -0.954346 48 16 8
-2.09809 0.343223 0.428953 32 40 19
-2.53382 0.235171 -1.0554 46 51 28
-0.157347 1.51818 -0.711283 77 40 32
-1.84395 1.31017 -2.39172 54 57 24
-1.94138 -1.18277 0.760522 150 148 90
-1.5108 -0.233747 1.25452 44 36 21
-1.86842 0.238929 -0.0862163 36 40 25
1.22931 0.167363 -0.176658 145 122 101
1.03725 0.599609 -0.43656 158 115 105
-2.86726 0.379446 -1.16051 60 61 36
-2.6997 0.518032 -1.18016 164 152 134
-0.310728 2.33104 -0.230312 102 45 34
-2.44784 0.50357 -0.921735 164 151 130
-1.69899 0.129404 0.566217 82 60 26
-2.15423 0.305451 -0.600098 159 148 126
-2.41834 0.36238 -0.759798 164 154 132
-2.52209 0.238373 -1.01541 50 58 32
-1.41068 -1.34632 -1.15773 110 118 70
-0.545033 0.645845 -1.0504 58 40 30
0.557106 -1.59504 0.279332 60 72 30
0.766375 -0.759235 -0.826933 158 167 121
-1.83789 0.340634 0.389496 38 40 26
-2.99685 0.444753 -0.540415 164 152 132
-2.93872 0.457754 -0.516066 43 51 28
-2.79559 -2.25587 0.876522 44 53 24
-2.02439 -1.56269 0.742196 38 42 23
-2.93317 0.468693 -0.49077 39 48 26
1.28888 1.34714 0.0637708 99 87 78
-1.74656 -0.607058 1.11814 152 148 88
-0.219643 0.966129 -0.0803182 26 11 6
0.993734 0.602112 -0.615406 152 116 109
-0.810793 1.01476 -0.949005 160 108 80
-0.81978 1.6385 -0.392749 30 6 1
-2.10189 1.28526 -2.31044 56 62 36
-1.94783 1.37828 -2.4269 71 65 29
-0.296337 2.57992 -0.0485091 53 16 12
0.253094 2.69789 -0.00498765 66 28 26
0.547716 2.91774 0.266055 69 41 36
-0.496943 2.96788 0.58064 59 20 12
-0.224414 3.02596 0.265266 110 63 48
-1.89459 1.35481 -2.3755 59 59 20
-2.15031 1.3693 -2.33878 160 150 136
-0.221301 2.97418 0.106621 116 69 54
-0.850918 2.52017 0.898413 56 16 9
-0.629082 2.81773 0.50652 45 14 10
-0.170997 1.49803 -0.774159 80 41 34
-2.14729 1.37131 -2.36422 161 150 137
-0.252083 3.04505 0.31599 122 75 57
-0.0675881 0.924308 -1.3009 150 122 116
-2.22331 1.37967 -2.36003 62 63 32
2.01559 -2.01373 -1.73874 50 60 30
1.66117 -1.69707 -1.34183 156 162 111
1.44226 -1.56106 -1.15254 70 70 38
1.4457 -1.44402 -1.24711 80 81 61
-1.32205 -1.21368 -0.672253 73 80 29
-1.24857 -1.21463 -0.642623 74 83 33
-1.30802 -1.17159 -0.620758 154 154 106
-1.21634 -1.14926 -0.765819 76 84 32
-1.25174 -1.14746 -0.593715 76 82 34
-1.15869 -1.12478 -0.558471 81 88 35
-1.12095 -0.994544 -0.448568 89 91 40
0.915413 -0.932016 -0.774155 64 72 52
0.690585 -0.908541 -0.475134 60 64 29
0.584238 -0.754494 -0.728853 26 34 17
0.43744 -0.643264 -0.228857 70 70 38
-1.78399 -0.568303 1.54648 151 150 92
-1.61992 -0.519123 1.41991 152 152 96
-1.29106 -0.360313 1.26534 152 154 100
-1.23254 -0.321974 1.22705 149 150 98
-1.21293 -0.27424 1.19011 48 50 16
-1.6438 -0.206327 0.867573 91 68 45
-0.513619 0.246674 0.343472 28 10 2
0.952995 0.281591 -0.153292 20 10 2
0.120165 0.623336 0.336544 49 50 34
-0.732326 0.436117 -0.862131 60 68 52
6.82361 1.81123 4.37365 92 104 52
0.902855 0.662356 -0.695883 155 110 94
-0.448702 0.654964 -0.693778 96 77 66
-0.531423 0.671132 -0.850505 104 82 70
-0.079139 0.765377 -0.797661 44 38 26
0.503402 0.796538 -0.850083 120 85 70
-0.0716599 0.803934 -0.868525 16 4 1
-1.69294 0.693539 -1.7055 155 148 123
-1.72907 0.735257 -1.76665 156 148 123
-3.30883 0.774788 -1.49614 40 37 18
-1.12542 1.24115 -0.273824 52 14 5
-1.094 1.47113 0.00827268 24 4 1
-3.39308 0.903914 -1.51992 45 44 24
-1.83196 0.892581 -1.96518 75 74 42
-1.86626 0.907362 -1.97424 153 142 118
-1.1458 1.50566 -0.0350297 114 76 58
0.0253435 1.39697 -0.759823 110 86 84
-3.44218 0.990421 -1.49883 50 48 24
-1.82669 1.01705 -2.09968 67 76 56
0.335816 1.79766 -0.459677 26 4 2
-1.74156 1.18246 -2.10323 42 44 19
-1.68295 1.19063 -2.10321 54 57 31
-1.72324 1.2306 -2.17191 53 52 25
0.561759 2.0969 -0.246718 54 25 22
-2.04821 1.23884 -2.25067 62 67 40
-1.76296 1.28629 -2.19157 52 52 28
-0.871195 2.60665 0.858004 72 28 15
0.119126 2.29049 -0.333858 122 100 98
0.177089 2.34632 -0.296641 67 26 23
-1.89366 1.37789 -2.32716 58 57 24
-0.717629 2.80679 0.931053 72 26 10
0.280598 2.73579 -0.0288647 85 45 44
-0.246639 2.78746 0.113662 118 58 42
1.15953 -2.91422 1.39616 155 160 106
2.01091 -2.09708 -1.84552 50 57 24
2.01686 -2.04258 -1.85344 157 162 108
-0.842422 -1.61453 1.08689 150 154 106
-0.417453 -1.41584 0.725076 157 164 113
-1.31592 -1.27557 -0.647048 68 78 32
-0.413915 -1.35375 0.811205 70 85 42
-1.45479 -1.25243 0.697238 155 157 104
-1.30962 -1.169 -0.605088 152 152 102
-1.39759 -1.19508 0.665788 154 157 102
0.89485 -1.12548 -0.524809 150 159 115
-1.0439 -1.14021 0.83006 122 123 72
0.874817 -1.08867 -0.766305 64 65 32
-1.30345 -1.10634 0.656039 154 158 105
0.795516 -1.06063 -0.539551 150 160 113
0.827027 -0.995166 -0.799069 34 40 20
-1.16005 -0.983975 0.671516 154 159 107
0.901341 -0.941401 -0.822179 49 60 42
-1.11656 -0.937057 0.616656 154 158 104
0.666296 -0.909254 -0.368718 151 160 120
0.690533 -0.901149 -0.486721 60 64 32
0.665673 -0.652299 -0.540033 40 51 34
-1.72713 -0.553492 1.37353 151 150 92
0.588482 -0.570541 -0.511492 42 50 36
-1.20115 -0.230787 -0.472513 158 158 106
-1.72332 -0.145641 0.792695 116 84 61
0.327388 0.687743 -0.0199148 44 47 28
-0.656545 0.593175 -0.628489 12 8 4
-0.455223 0.648616 -0.704286 100 80 69
-0.641134 0.662496 -0.925769 13 8 5
-0.511544 0.696199 -0.946888 22 12 8
1.06564 0.947576 -0.164825 102 69 58
0.511907 0.806703 -0.815747 121 86 71
-0.704005 0.802326 -0.594125 86 62 52
0.747837 0.883246 -0.81223 160 132 120
0.00848988 0.907603 -1.04837 134 108 98
-3.2374 0.672592 -1.4312 45 48 24
-3.12357 0.690314 -1.40211 168 160 146
-3.28735 0.736789 -1.4222 42 43 20
-0.998782 1.23005 -0.452879 54 18 12
-0.46533 1.35237 -0.736326 48 16 14
-1.00651 1.52267 -0.171289 90 47 33
-1.90382 0.957078 -2.00648 154 142 120
-1.70858 0.998939 -1.98504 151 142 117
-1.01388 1.61876 -0.118783 60 22 12
0.440796 1.83088 -0.467206 82 48 44
-0.746224 1.88541 -0.0518067 35 9 2
-0.17199 1.81934 -0.513347 93 52 46
-1.74077 1.18968 -2.08112 42 44 19
0.164952 2.04508 -0.416239 50 18 16
-1.83693 1.26482 -2.18886 155 142 132
-1.76936 1.27954 -2.20155 50 54 26
0.4654 2.21552 -0.221261 106 67 66
-0.871899 2.47886 0.819221 48 13 6
-1.77267 1.31911 -2.23873 155 145 133
-1.87377 1.32046 -2.21016 153 145 132
0.484376 2.30528 -0.162846 104 64 64
-0.710275 2.30966 0.154912 120 98 92
-1.82647 1.32815 -2.26041 52 54 23
-0.864153 2.60679 0.860323 75 28 18
0.780265 2.73679 0.223805 126 104 100
-0.127748 0.937421 -1.03953 158 114 99
-0.872546 -1.81958 1.2908 151 152 102
-1.49409 -1.37133 -0.623779 154 152 101
-1.8501 -1.46253 0.654914 40 50 24
-1.43322 -1.25034 0.772462 153 154 97
0.699863 -0.895452 -0.485636 64 68 38
-1.26715 -0.561105 0.711188 49 53 28
-1.63268 -0.394971 1.21795 44 46 23
-1.36175 -0.351871 1.24446 44 48 22
-1.52218 -0.215582 1.05132 50 39 22
1.50791 -0.0579648 -0.511047 144 162 117
0.990911 0.260568 -0.931907 167 138 127
-0.669107 0.58574 -0.678969 10 7 4
-0.469638 0.647098 -0.733813 100 80 70
0.50427 0.937664 -1.03 76 34 28
0.05357 0.976233 -1.06617 159 134 136
-0.993742 1.01771 -0.691775 86 30 19
1.31619 1.5028 0.352387 66 42 29
-1.02376 1.25801 -0.317809 47 18 14
0.0278166 1.28051 -0.900982 78 43 39
-1.85705 0.980131 -2.07739 64 70 40
-0.883608 1.68313 -0.119578 16 6 6
0.323668 1.69016 -0.529114 84 52 48
-0.638357 1.907 -0.268959 92 40 25
-0.75641 2.02411 -0.0207912 59 20 13
-1.95891 1.18981 -2.21025 158 150 136
-0.387355 2.25776 -0.190201 62 14 6
-0.317183 2.43347 -0.0129618 117 55 36
0.0790766 0.908794 -1.0508 30 34 13
-1.527 -1.26994 0.730539 66 72 38
-1.25802 -0.450587 0.218719 152 148 102
-1.76629 1.27666 -2.18717 50 54 26
-0.896805 -2.86768 2.73196 72 80 38
2.00358 -1.94544 -1.76349 160 163 112
1.86947 -1.95137 -1.67586 156 160 107
-1.74272 -1.51973 0.741008 150 149 92
-0.812445 -1.45773 0.990055 150 150 100
-0.769877 -1.3634 0.831891 56 69 26
-0.702669 -1.28598 0.760369 64 77 34
-0.794725 -1.2677 0.732084 152 153 100
-1.41015 -1.23246 0.69046 154 155 103
-1.00353 -1.23869 0.888571 114 120 68
-1.49836 -1.1562 0.550992 38 48 24
-1.40087 -1.11967 0.6541 50 58 32
-1.28901 -1.10053 0.624391 154 158 102
-1.264 -0.994682 0.624322 53 58 34
-2.0763 -0.436618 1.71029 150 145 87
-1.53043 -0.0665025 1.10213 148 142 80
1.09835 0.208077 -0.475727 147 138 110
-0.350263 0.392806 -0.017964 43 50 35
0.811134 0.355669 -0.822829 39 17 6
0.461266 0.698032 0.0583366 14 8 2
-0.488448 0.647317 -0.775753 103 82 72
-0.66935 0.729035 -0.841788 14 7 4
-0.44415 1.34497 -0.747741 52 18 14
-0.962714 1.58108 -0.165015 80 41 30
-0.854913 1.4858 -0.601987 81 36 24
-1.82885 1.06924 -2.09961 154 144 124
-1.79482 1.20365 -2.17114 151 138 120
-1.95727 1.19239 -2.21213 158 148 136
0.538712 2.28821 -0.137381 105 68 67
-1.94584 1.40486 -2.37143 68 62 31
-1.63364 -0.403983 1.13218 45 47 24
1.62308 -0.134185 -0.161748 136 108 83
-0.524648 2.71103 0.270404 54 16 8
0.0707366 2.65633 -0.225046 63 23 20
1.05288 0.156951 0.366208 38 33 14
-1.72659 0.721782 -1.72699 155 146 120
-0.851415 2.61305 0.888135 76 26 17
-1.99752 -1.56793 0.690061 43 50 24
-1.58702 -1.38768 0.701633 152 152 95
-1.82174 -1.28971 0.551821 46 50 28
-1.41008 -1.12624 0.680408 48 56 29
-1.27166 -0.985353 0.647871 49 54 31
-1.29627 -0.561486 0.176894 46 50 24
-1.6956 -0.498899 1.95413 54 54 26
1.18299 0.0487449 -0.109724 40 42 14
-0.490328 0.650618 -0.75606 104 83 74
-2.04885 1.19888 -2.26549 60 66 36
-0.412782 2.0931 -0.269339 94 40 27
-1.90745 1.30711 -2.26222 155 144 132
-0.856445 2.55169 0.816575 73 25 14
0.0263875 0.970679 -1.07161 158 134 132
-1.95595 1.19912 -2.20774 157 148 135
-1.85632 -1.54152 0.736028 49 58 33
-1.40873 -1.24399 0.69075 152 154 100
-1.28372 -1.1062 0.648695 154 156 102
-1.42241 -0.70962 0.270021 48 54 30
0.354657 0.824581 -1.25549 159 134 132
1.61107 -1.53033 -1.45781 156 164 109
0.655392 0.799938 -0.0866148 24 10 7
-0.92171 0.876954 -0.788023 176 128 95
-0.16786 0.942089 -0.791273 153 106 82
-0.843269 0.93347 -0.910781 164 113 82
-0.601419 1.09682 -0.862701 70 28 22
-2.06611 1.12227 -2.15102 158 146 134
-1.9359 1.24549 -2.11142 158 146 134
0.298498 2.38294 -0.195921 74 32 28
-1.41399 -1.14604 0.767801 48 56 26
-0.828699 0.788225 -0.495409 13 6 4
-1.67968 -1.56979 0.693273 151 150 92
-1.3529 -1.30447 0.679484 152 155 99
-1.13995 -0.939721 0.487204 156 160 108
-1.68 -0.829439 0.454263 152 152 98
-1.5092 -0.606648 1.18216 152 150 93
-2.1898 -0.502628 1.71696 50 41 13
-1.69301 -0.499084 1.6155 54 55 26
-1.18945 -0.266236 -0.118369 154 155 100
-0.827958 0.447742 -0.853034 45 54 36
0.756092 0.794408 0.60162 18 10 7
-0.430437 0.772532 -0.953028 24 10 6
-0.165199 1.28276 -0.994631 68 30 22
-2.14347 1.28644 -2.40885 50 63 29
2.16291 -2.02409 -1.1078 102 106 62
-0.535186 2.58153 0.344619 100 42 24
-0.0739019 2.97408 0.0861023 142 109 102
-1.35386 -1.31176 0.841433 152 156 100
1.64355 0.711596 0.321062 114 140 98
-0.102915 0.459292 0.266032 106 106 102
-0.730678 1.05399 -0.831018 168 118 92
-0.0595355 1.27875 -0.760192 68 30 25
2.15854 -2.18174 -1.7156 159 164 112
0.787894 -2.10082 0.220164 160 163 115
1.69617 -1.60911 -1.45339 88 91 66
1.40162 -1.56183 -1.13982 158 162 110
-0.393931 -1.28096 -3.41331 58 63 23
1.3671 -1.50611 -1.19566 63 64 30
1.55807 -1.47874 -1.22282 158 166 115
-0.437662 -1.20433 -3.51533 48 54 20
1.45134 -1.43848 -1.02034 103 100 80
-1.40812 -1.36667 -0.778515 73 82 40
1.40067 -1.37453 -1.0112 56 58 34
-0.419782 -1.11188 -3.7951 159 166 114
-0.405991 -1.22714 -0.570574 88 95 46
-0.348319 -1.06942 -2.41842 148 156 114
-0.346389 -1.11807 -0.437586 158 165 114
0.806088 -1.11732 -0.809444 157 164 116
-0.302367 -1.00634 -2.1689 154 162 115
0.781956 -1.00044 -0.914335 34 42 19
-1.00845 -0.974237 -0.473095 155 158 108
0.753482 -0.982186 -0.589344 62 66 29
-0.263244 -0.994037 0.70119 158 164 112
-0.209575 -0.969227 0.0857829 158 161 110
-1.01739 -0.926409 -0.51986 96 98 47
-1.09942 -0.926801 0.684178 155 161 108
-0.227179 -0.883679 -1.7404 154 164 116
-0.301218 -0.90176 0.403513 157 163 110
0.638631 -0.861357 -0.932622 29 35 21
0.626457 -0.846505 -0.821192 26 36 18
-0.247709 -0.848647 0.540934 158 162 110
-0.20933 -0.795789 0.659606 158 163 111
0.622252 -0.774022 -0.773325 88 92 76
0.429151 -0.764583 0.398976 59 68 46
0.501802 -0.704559 -0.302834 64 64 32
-0.602221 -0.700549 -1.58979 70 66 44
0.222587 -0.647507 -0.160506 47 58 33
0.395961 -0.58996 -0.169885 68 68 36
0.370688 -0.578982 -0.0518423 161 166 118
-0.441676 -0.562354 -0.188443 74 76 26
0.363064 -0.530409 0.161069 158 164 118
-0.0126971 -0.549789 -0.759123 38 48 26
-0.310233 -0.510332 -1.26214 94 101 92
-0.503879 -0.343354 -0.505569 116 108 62
0.318533 -0.277623 -0.366145 50 58 42
-0.577114 -0.268205 -0.543038 56 61 18
1.47361 -0.159562 -0.227932 123 89 52
1.62273 -0.102983 0.158503 60 40 13
1.0636 0.00830735 0.113332 143 159 116
1.50115 -0.0295724 -0.40559 144 110 90
1.29243 0.154376 0.226405 58 51 26
-0.150685 0.0778042 -0.220966 71 82 72
1.08579 0.0621567 -0.778607 142 154 116
-1.31192 0.117496 -0.0862579 50 23 9
1.17322 0.145861 -0.564111 150 108 84
-1.40682 0.166993 -0.626323 74 77 59
1.31479 0.420544 0.166028 54 20 4
-0.0218039 0.409504 0.0405536 68 74 55
-1.14413 0.280503 -1.37653 12 9 2
-1.06462 0.423983 -1.27745 58 64 45
-0.860153 0.517696 -0.955542 53 61 46
0.805714 0.799683 -0.811543 148 112 100
-1.57977 0.892865 0.159389 156 144 116
0.869735 0.856042 -0.75287 62 30 15
0.927749 0.865159 -0.754185 138 108 98
-0.630408 0.814706 -0.618235 18 4 1
0.920704 0.934704 -0.669217 125 94 86
0.926962 0.981536 -0.675332 78 55 42
0.514968 0.919946 -1.0636 72 36 30
0.953743 1.16326 -0.409479 41 16 10
-1.14874 1.00418 -0.643027 70 26 14
-0.00823359 0.920701 -1.60322 74 60 42
0.166562 0.851895 -1.93141 93 76 58
0.120628 0.922131 -1.76678 49 54 31
0.21194 0.980083 -2.00428 86 73 49
0.183036 1.4196 -0.649818 30 12 8
0.241205 1.09554 -2.06674 58 58 30
0.261241 1.11027 -2.10361 149 146 132
0.447116 1.64055 -0.647409 94 61 58
0.813577 1.81928 -0.224111 34 16 8
0.607227 1.76351 -0.391888 109 82 78
0.618409 1.79998 -0.437422 28 6 3
0.111159 1.92346 -0.550281 64 29 24
0.598359 2.02437 -0.379454 48 20 18
-0.18548 2.06692 -0.42121 114 67 59
0.301265 1.65543 -1.96514 82 53 36
-1.90144 1.39706 -2.13576 147 138 122
2.36399 -2.36471 -1.27484 155 157 104
0.804824 -2.52057 0.240712 158 163 108
2.16192 -2.18135 -1.71656 159 164 112
0.750793 -2.05536 0.36305 156 160 108
-0.380856 -1.23991 -3.64874 164 168 114
1.33544 -1.37242 -1.12863 52 54 32
-0.853667 -1.46534 0.81198 150 154 104
1.33174 -1.33403 -1.24441 158 165 114
1.2747 -1.31373 -1.08197 51 58 32
-0.34606 -1.23353 -0.321032 88 96 46
-0.367551 -1.19741 0.589502 158 162 111
-0.38407 -1.04068 -2.38959 80 83 76
-0.335832 -1.11662 -0.418221 160 164 114
-0.407084 -1.02817 -2.39524 80 84 78
-0.371817 -1.12663 0.622592 72 86 42
-0.35665 -1.0707 0.440918 158 164 112
-0.0793209 -1.05912 0.211753 111 109 60
-0.246936 -0.993825 0.628601 158 164 110
-0.258211 -0.97485 -0.112212 158 163 110
0.354058 -0.909342 0.00214988 157 166 117
-0.385373 -0.87148 0.015477 157 162 108
-0.217455 -0.720889 0.701688 68 74 27
0.586684 -0.714277 -0.0961323 64 64 33
0.518827 -0.719524 -0.654165 33 40 18
0.325197 -0.646747 0.151785 47 60 33
0.43457 -0.643334 -0.2405 68 68 34
0.428519 -0.622563 -0.432563 76 74 40
-0.562485 -0.637045 -1.4041 58 58 40
-0.207794 -0.579834 0.208803 127 118 80
0.272494 -0.59323 -0.539771 66 64 34
-0.454848 -0.555805 0.274218 112 111 72
-0.407929 -0.563884 -0.0211169 73 78 27
0.39318 -0.544209 0.232478 160 166 118
0.397001 -0.546173 -0.511434 28 35 18
0.121901 -0.491539 -0.325773 42 51 27
0.330658 -0.450472 -0.327149 35 39 19
-0.716202 -0.347329 -0.159276 42 50 11
-0.57919 -0.305832 -0.730335 95 91 50
1.49123 -0.161528 -0.382338 114 81 53
1.56579 -0.125776 -0.359869 142 114 92
-0.529766 -0.109759 -0.0519645 105 100 62
1.08939 0.0558756 -0.755652 140 154 115
0.0664865 0.164609 0.194214 24 36 25
1.16443 0.120534 -0.745617 175 143 134
-1.64308 0.125729 -0.388292 65 68 40
1.17922 0.17239 -0.799649 114 76 61
1.07062 0.195103 -0.802911 133 87 68
1.31961 0.416811 0.177946 48 16 2
1.02202 0.265598 -0.85255 168 138 128
-0.889376 0.316358 -0.256274 36 42 31
-0.736358 0.432299 -0.875603 58 64 49
-1.03987 0.444911 -1.12308 46 54 33
0.867525 0.727879 -0.817059 152 107 91
0.88499 0.866484 -0.712722 63 32 17
-0.459966 0.788366 -0.851946 22 10 6
0.544766 0.872301 -0.969424 158 134 130
-1.64217 0.714717 -1.26425 106 82 59
0.887846 0.976839 -0.732716 74 52 38
0.489466 0.916343 -1.09132 72 36 27
1.0657 1.12656 -0.353876 69 48 36
-1.08091 0.991845 -0.564643 167 114 82
-1.11543 1.0529 -0.51265 62 22 12
0.771743 1.05516 -1.06535 153 150 138
0.0150007 0.939598 -1.52683 68 52 35
-0.954421 1.17385 -0.547823 145 100 86
0.0263482 0.985176 -1.70673 76 56 42
-1.25418 1.37093 -0.0650441 49 18 8
-1.12464 1.40808 -0.273114 22 4 2
0.110486 1.36621 -0.851881 30 12 9
0.275325 1.05792 -2.01945 150 147 136
0.245114 1.10409 -2.04937 50 51 22
0.283259 1.12606 -2.06909 151 148 136
-1.54539 1.12854 -1.78555 148 134 108
0.66283 1.75984 -0.417219 34 11 6
0.550185 1.80638 -0.4241 40 18 15
0.622666 1.47317 -1.40603 68 62 19
0.29385 1.77179 -0.72401 88 54 50
0.21322 1.27387 -2.28338 86 69 24
0.205616 1.34373 -2.18406 75 63 26
0.188094 1.42131 -2.31764 145 136 129
1.29327 -1.49355 -1.04448 156 161 109
0.275047 0.712375 -1.10114 86 72 55
0.635424 0.948579 -0.986938 68 40 29
-1.16951 1.11317 -0.187657 65 27 16
0.448812 1.64184 -0.64502 94 61 58
0.796176 -2.51195 0.216802 158 163 108
1.82674 -1.79722 -1.60256 42 52 26
1.80606 -1.73445 -1.5867 46 56 30
1.59826 -1.63797 -1.2889 62 61 27
1.74962 -1.59329 -1.07768 90 88 65
-0.636205 -1.42145 0.845164 74 86 44
-0.379218 -1.12213 0.593298 72 86 42
-0.476317 -1.05181 -0.667172 94 102 50
-0.23578 -0.990509 -0.0354202 158 162 108
-0.225982 -0.878328 -1.74615 154 164 114
-0.220304 -0.719881 0.708138 68 76 27
-0.838301 -0.706521 0.618771 158 160 107
0.355628 -0.710908 -0.505871 158 166 116
-0.563317 -0.633478 -1.46823 58 60 42
0.38704 -0.589706 -0.268805 68 66 36
-0.423558 -0.567079 -0.0683526 74 78 28
0.364266 -0.531261 -0.575669 25 32 16
0.345672 -0.453807 -0.272171 38 42 22
0.150218 -0.343016 -0.095217 75 75 42
-0.563506 -0.319469 -0.237637 116 109 66
1.0446 0.617483 -0.618449 165 136 129
-1.04684 0.451229 -1.11534 43 52 31
-0.662305 0.546188 -0.953461 16 12 6
0.668225 0.714008 -0.690792 26 10 4
-1.55016 0.788229 0.0966072 91 48 21
-0.881214 0.492993 -1.89408 14 10 6
-0.49664 0.692881 -0.961374 21 10 6
0.0126346 0.984324 -1.72434 76 54 42
-1.08908 1.44122 -0.197132 22 4 2
0.260457 1.15456 -1.95781 40 42 18
0.699193 1.77689 -0.362813 35 12 7
0.229611 1.21589 -2.2416 68 62 19
0.315338 1.78215 -0.701965 88 54 52
0.28636 1.37059 -2.31195 148 142 132
-0.40204 -1.0851 0.593494 68 85 40
-0.342389 -1.06429 0.497958 158 165 113
-1.57891 1.46885 -0.426038 148 137 113
-0.932205 2.15636 1.38857 58 20 12
-0.0529694 -1.26541 -0.0403906 156 162 113
-1.07778 0.981786 -0.610084 173 120 87
1.91353 -1.87905 -1.58469 44 56 20
-1.84955 -1.54286 0.709432 50 60 31
1.67271 -0.381381 -0.195984 149 162 116
-2.22462 -0.406753 -6.76214 55 60 34
0.794646 -2.46052 0.104291 159 163 108
-0.551357 -1.98585 1.34446 156 159 106
1.70741 -1.68718 -1.44771 68 64 35
-2.04001 -1.79325 0.870364 154 152 94
-2.01698 -1.68737 0.84419 35 44 18
1.69363 -1.55732 -1.3141 154 162 108
-1.65896 -1.48784 -0.999492 152 151 97
-1.89556 -1.65985 0.799608 150 148 87
-1.58139 -1.3926 0.77821 152 154 96
-0.399192 -1.19565 -0.498593 88 96 48
-0.39014 -1.22446 0.545717 156 162 110
-0.361396 -1.12349 0.66718 72 86 42
-0.216755 -1.03465 0.742426 158 164 110
0.378226 -0.907509 0.0646175 158 166 115
-0.653802 -0.813531 -1.98057 66 64 45
0.495952 -0.748984 -0.570727 61 63 32
-0.223332 -0.724331 0.699367 68 76 27
0.270768 -0.705033 -0.722669 158 167 117
-0.543281 -0.634109 -1.45558 58 60 44
0.40645 -0.595272 -0.275116 70 67 37
0.363418 -0.574382 0.0567305 158 165 114
-0.449 -0.570794 -0.173754 72 78 26
-0.0774551 -0.536868 -0.676918 72 84 71
-0.554756 -0.392839 -0.780832 118 108 62
-0.57242 -0.327383 -0.241951 118 111 68
-0.542064 -0.318955 -0.956056 45 52 34
-1.01779 -0.181586 0.742614 156 158 108
0.912475 -0.0401055 0.053905 58 32 17
1.13986 -0.0290373 0.274541 142 160 115
-0.495852 0.203813 0.231883 36 12 5
-0.0478283 0.193052 -0.0227744 34 48 32
1.07474 0.172762 -0.772495 153 110 92
-0.878522 0.22776 -0.183491 88 99 72
0.104967 0.424326 0.245447 9 4 2
-1.6693 0.302883 -0.527673 134 124 73
-1.91124 0.267227 -1.0847 149 139 92
-1.08269 0.361436 -1.08697 14 8 5
-0.777335 0.764717 -0.503392 20 11 8
0.839337 0.819642 -0.632137 142 108 90
0.740809 0.87436 -0.78801 148 120 106
0.558746 0.859487 -0.986334 159 137 132
-1.55803 0.836376 -1.13677 51 64 32
-0.991869 1.02006 -0.693117 88 32 20
-1.75863 0.940799 -1.35656 151 142 114
-1.08768 1.44425 -0.168291 22 4 4
-1.58725 1.28563 -0.768622 144 136 112
-0.240685 1.43564 -0.74899 78 38 30
0.0253613 1.42952 -0.881921 85 52 46
0.283762 1.12301 -2.06542 150 146 135
-0.0258887 1.48903 -0.864453 80 50 48
0.547497 1.80514 -0.452744 41 20 18
0.219762 1.20772 -2.26316 68 62 19
-1.63849 1.38781 -1.2558 36 41 14
-0.196123 2.06432 -0.414559 94 47 40
-1.8771 1.39066 -2.02954 149 138 124
-1.77737 1.27559 -2.37445 150 136 122
0.246845 1.39705 -0.672637 26 6 2
